0.0181951 0.156424 -0.988555
0.0184365 0.118408 -0.981669
0.0257975 0.146594 -0.989911
0.0256413 0.10808 -0.982886
0.0073425 0.149062 -0.985382
0.00604252 0.10235 -0.977235
0.00285844 0.130358 -0.981139
0.0282596 0.117666 -0.985742
0.00521434 0.139961 -0.983247
0.0119462 0.129236 -0.982044
0.0137603 0.137935 -0.984766
0.00781623 0.111231 -0.978568
0.0205138 0.127281 -0.984478
0.0232844 0.137137 -0.987916
0.010389 0.120741 -0.980008
0.0156528 0.146656 -0.987307
0.0145682 0.100738 -0.977382
0.0168178 0.109496 -0.979442
0.0376427 0.116345 -0.989173
0.0674693 0.196859 -1.20474
0.0761024 0.175586 -1.2163
0.0351902 0.10658 -0.987365
0.0665803 0.187817 -1.20905
0.0882202 0.183422 -1.21404
0.0980939 0.171173 -1.22041
0.0973717 0.161823 -1.2289
0.11027 0.17918 -1.21757
0.0841279 0.153176 -1.22893
0.0847659 0.162384 -1.22436
0.0769836 0.185059 -1.2119
0.0933913 0.140489 -1.23759
0.0994932 0.181421 -1.21595
0.0941081 0.131147 -1.24603
0.0889683 0.192662 -1.2081
0.111573 0.189274 -1.21316
0.0867539 0.172909 -1.21778
0.103742 0.128199 -1.24647
0.105646 0.139082 -1.24107
0.106827 0.1491 -1.2349
0.095557 0.151318 -1.23274
0.108502 0.168495 -1.22127
0.107362 0.159 -1.22968
0.138712 0.131993 -1.24524
0.119301 0.157328 -1.23161
0.123715 0.187857 -1.21403
0.132259 0.174883 -1.21988
0.142625 0.163046 -1.22744
0.117003 0.136921 -1.24274
0.142081 0.153671 -1.23373
0.124835 0.197901 -1.209
0.150967 0.140556 -1.2409
0.12842 0.135283 -1.24375
0.128981 0.144745 -1.23805
0.12017 0.167017 -1.22356
0.132568 0.184571 -1.21439
0.134103 0.194557 -1.20925
0.151333 0.130655 -1.24661
0.143589 0.173 -1.22188
0.121177 0.17707 -1.21866
0.129951 0.155208 -1.23258
0.116955 0.146597 -1.23612
0.141176 0.143115 -1.23975
0.147097 0.194367 -1.21072
0.151837 0.150613 -1.23536
0.187277 0.145093 -1.23957
0.156088 0.19077 -1.21258
0.167997 0.17939 -1.21901
0.15604 0.181388 -1.21684
0.16078 0.127796 -1.24726
0.174403 0.136427 -1.24448
0.162991 0.138525 -1.24271
0.188573 0.164744 -1.22901
0.177331 0.167058 -1.2267
0.176091 0.156836 -1.23278
0.154884 0.171178 -1.22396
0.17866 0.186798 -1.21637
0.168554 0.189684 -1.21414
0.188787 0.155548 -1.23435
0.180381 0.19711 -1.21098
0.165288 0.149553 -1.23874
0.174968 0.146541 -1.23886
0.165236 0.168477 -1.2244
0.153309 0.160407 -1.22735
0.177647 0.176923 -1.22137
0.165686 0.159649 -1.23021
0.186484 0.134513 -1.24585
0.210801 0.151414 -1.23858
0.221896 0.148662 -1.24066
0.214259 0.191408 -1.21867
0.201008 0.183079 -1.22043
0.19113 0.195018 -1.21301
0.190411 0.175256 -1.22418
0.222773 0.159255 -1.23609
0.210215 0.140979 -1.24416
0.22011 0.138079 -1.24624
0.198781 0.152493 -1.23604
0.196505 0.13212 -1.24874
0.22377 0.179067 -1.22318
0.213656 0.181858 -1.22119
0.199888 0.163241 -1.23151
0.203012 0.193723 -1.21555
0.211786 0.130978 -1.25178
0.200432 0.172816 -1.22422
0.222759 0.168927 -1.22722
0.192035 0.186526 -1.21928
0.197352 0.141999 -1.24146
0.211498 0.108274 -0.996926
0.249911 0.176337 -1.22827
0.250091 0.196318 -1.21521
0.234743 0.137037 -1.24781
0.236621 0.187454 -1.2208
0.247862 0.185718 -1.22195
0.235762 0.167171 -1.22962
0.235332 0.157648 -1.23517
0.225516 0.189911 -1.21919
0.234087 0.147031 -1.24127
0.236923 0.178046 -1.22612
0.223684 0.115721 -1.00056
0.218684 0.127522 -1.00716
0.233672 0.122743 -1.00415
0.222364 0.137316 -1.01507
0.240367 0.111915 -0.99705
0.229332 0.148621 -1.02374
0.236872 0.145829 -1.02182
0.228694 0.104357 -0.995642
0.244642 0.121335 -1.00256
0.21583 0.118087 -1.00173
0.239201 0.133126 -1.0118
0.221283 0.106846 -0.99622
0.233037 0.136117 -1.01427
0.228502 0.125601 -1.00637
0.231992 0.113796 -0.998721
0.245496 0.143924 -1.01627
0.236796 0.102566 -0.992921
0.250066 0.131794 -1.00982
0.270512 0.136965 -1.01214
0.31576 0.193092 -1.21392
0.267063 0.127774 -1.00814
0.253242 0.141244 -1.01412
0.256649 0.107741 -0.993687
0.329766 0.191898 -1.22109
0.274053 0.125183 -1.00822
0.268071 0.115034 -0.999522
0.262007 0.117566 -1.00028
0.262748 0.139805 -1.01268
0.251934 0.119295 -1.00118
0.265173 0.105913 -0.992547
0.247938 0.10964 -0.995217
0.255306 0.128553 -1.00843
0.305311 0.121185 -1.00732
0.361595 0.1849 -1.22311
0.361988 0.194773 -1.22084
0.339372 0.189669 -1.22122
0.352567 0.187847 -1.22211
0.291509 0.121382 -1.00819
0.278689 0.11351 -0.999083
0.273304 0.103547 -0.991756
0.286653 0.111715 -0.999306
0.285334 0.124325 -1.0081
0.280151 0.135739 -1.01287
0.297255 0.109943 -0.999684
0.289342 0.133439 -1.01297
0.282377 0.101969 -0.991557
0.398915 0.179582 -1.22988
0.386449 0.191613 -1.22479
0.32365 0.105002 -1.00303
0.375577 0.183549 -1.22524
0.303622 0.107938 -0.999514
0.408614 0.177207 -1.23349
0.384065 0.180885 -1.22797
0.314643 0.106194 -1.00031
0.310797 0.118202 -1.00385
0.398599 0.190049 -1.22695
0.335619 0.103037 -1.02199
0.374679 0.194029 -1.22267
0.422571 0.175459 -1.23486
0.435412 0.164153 -1.24635
0.432065 0.172838 -1.23889
0.446673 0.162139 -1.24696
0.409592 0.187385 -1.22918
0.446141 0.171502 -1.24152
0.42185 0.186046 -1.2311
0.423712 0.196668 -1.22465
0.445381 0.150793 -1.2471
0.434668 0.153842 -1.24783
0.446383 0.182593 -1.23502
0.431547 0.193593 -1.22595
0.480823 0.134032 -1.26199
0.481606 0.144868 -1.25763
0.470512 0.18836 -1.2333
0.45874 0.18007 -1.23771
0.469622 0.157715 -1.2506
0.479993 0.165545 -1.24597
0.479743 0.17537 -1.23932
0.445749 0.192153 -1.22843
0.458241 0.149213 -1.24791
0.456816 0.19 -1.23145
0.478484 0.1956 -1.22836
0.473312 0.137724 -1.25685
0.471699 0.16804 -1.24511
0.457344 0.169936 -1.24342
0.471686 0.179002 -1.23945
0.470058 0.14652 -1.25333
0.457273 0.138337 -1.18803
0.479567 0.185812 -1.23351
0.497063 0.133047 -1.26434
0.484002 0.155856 -1.25255
0.458278 0.159419 -1.24876
0.5186 0.14943 -1.25629
0.493023 0.183945 -1.23389
0.490528 0.173586 -1.23922
0.506689 0.130085 -1.26644
0.505735 0.14051 -1.26026
0.518164 0.138018 -1.26239
0.494777 0.15378 -1.25367
0.503667 0.182169 -1.2359
0.502797 0.191816 -1.23118
0.516583 0.189854 -1.23331
0.494383 0.163653 -1.24661
0.531258 0.137001 -1.26503
0.51756 0.170243 -1.24369
0.518416 0.180538 -1.23856
0.502916 0.161229 -1.24771
0.49405 0.142183 -1.25912
0.492459 0.193928 -1.22958
0.520891 0.128794 -1.26873
0.503521 0.171296 -1.24106
0.507394 0.151491 -1.25443
0.519596 0.159577 -1.24974
0.542894 0.145085 -1.25977
0.550307 0.183407 -1.23799
0.553196 0.174628 -1.24384
0.540007 0.196417 -1.23127
0.568735 0.130106 -1.27052
0.527418 0.18809 -1.23491
0.528207 0.17838 -1.2405
0.542247 0.155069 -1.25298
0.552315 0.152979 -1.25464
0.54018 0.185782 -1.23627
0.541478 0.166421 -1.24758
0.557171 0.132954 -1.26874
0.542986 0.133903 -1.2669
0.526826 0.156737 -1.25125
0.552347 0.194583 -1.2333
0.554244 0.163656 -1.24923
0.555413 0.142652 -1.26149
0.567632 0.150846 -1.25469
0.567656 0.141321 -1.26417
0.529309 0.167606 -1.24561
0.542829 0.176584 -1.24215
0.532868 0.147441 -1.25835
0.565407 0.192841 -1.23544
0.589203 0.157837 -1.2545
0.579523 0.170968 -1.24894
0.57677 0.148524 -1.257
0.565298 0.182203 -1.24079
0.580639 0.128485 -1.27245
0.575346 0.19021 -1.23768
0.593778 0.137291 -1.26778
0.564555 0.161708 -1.25054
0.593482 0.168728 -1.25071
0.578715 0.181178 -1.24413
0.590829 0.189167 -1.24019
0.568078 0.173058 -1.2462
0.578412 0.15949 -1.25242
0.604101 0.144833 -1.26387
0.609906 0.135742 -1.27056
0.579954 0.138429 -1.26646
0.591873 0.178931 -1.24636
0.594211 0.147169 -1.26062
0.60268 0.154944 -1.25721
0.646412 0.150733 -1.2669
0.628626 0.18366 -1.24511
0.624326 0.192667 -1.23918
0.629593 0.162786 -1.25843
0.602357 0.166395 -1.25217
0.61714 0.154406 -1.26161
0.645057 0.138776 -1.2708
0.614925 0.174413 -1.24929
0.634849 0.131434 -1.27542
0.631369 0.141124 -1.27071
0.603421 0.187913 -1.24197
0.600144 0.196492 -1.23624
0.626876 0.172851 -1.25154
0.634986 0.152356 -1.26531
0.620004 0.143224 -1.26774
0.602781 0.177377 -1.24761
0.645279 0.128906 -1.27863
0.613884 0.195475 -1.23768
0.614939 0.1854 -1.24321
0.61922 0.133111 -1.27278
0.619003 0.165143 -1.25535
0.681876 0.154776 -1.26729
0.649736 0.188692 -1.24203
0.655553 0.180273 -1.249
0.640169 0.192033 -1.24091
0.657958 0.15934 -1.26379
0.663359 0.187739 -1.24302
0.668235 0.167079 -1.25745
0.641327 0.170883 -1.25426
0.683219 0.143799 -1.27323
0.673107 0.146679 -1.27133
0.675567 0.135645 -1.28085
0.654602 0.169533 -1.25661
0.658769 0.1479 -1.26801
0.682595 0.132979 -1.27938
0.640551 0.181341 -1.24741
0.644716 0.160671 -1.26097
0.664253 0.177196 -1.24938
0.672263 0.157368 -1.26546
0.709895 0.17258 -1.26084
0.697409 0.185462 -1.25343
0.709676 0.150983 -1.27369
0.679802 0.176198 -1.25291
0.69531 0.163359 -1.26427
0.704063 0.193523 -1.24993
0.70837 0.161559 -1.2672
0.680887 0.165506 -1.25981
0.696551 0.174452 -1.25843
0.697307 0.196274 -1.24912
0.7271 0.149882 -1.27516
0.680283 0.19802 -1.24415
0.697996 0.130933 -1.28086
0.710986 0.12912 -1.28442
0.701664 0.153936 -1.27063
0.703034 0.181449 -1.25579
0.713669 0.13995 -1.27935
0.72988 0.139154 -1.28207
0.678243 0.186056 -1.24775
0.696206 0.142388 -1.27542
-0.45085 0.0586575 -1.25254
-0.446497 0.103751 -1.23083
-0.46164 0.0967613 -1.23218
-0.453053 0.0822293 -1.23879
-0.460232 0.073664 -1.24421
-0.451264 0.0931586 -1.23233
-0.461612 0.0618007 -1.2505
-0.446956 0.069954 -1.2471
-0.413538 0.108547 -1.22865
-0.43816 0.0681671 -1.2498
-0.408456 0.118103 -1.22307
-0.430191 0.0548663 -1.25693
-0.420276 0.0870985 -1.24096
-0.41121 0.0735515 -1.24703
-0.422313 0.109711 -1.22533
-0.4248 0.0992796 -1.23384
-0.416769 0.0977215 -1.23746
-0.434306 0.0793351 -1.24481
-0.417972 0.0638525 -1.2553
-0.420953 0.0528155 -1.25872
-0.441095 0.0916373 -1.23609
-0.430133 0.0886407 -1.23789
-0.429305 0.122324 -1.21894
-0.418811 0.119892 -1.22124
-0.427664 0.0666849 -1.25276
-0.408237 0.0845124 -1.24281
-0.445166 0.0805822 -1.24314
-0.432291 0.111638 -1.22502
-0.436375 0.101679 -1.23122
-0.441154 0.0570785 -1.2553
-0.390934 0.0695985 -1.25096
-0.396581 0.0591117 -1.25872
-0.37848 0.0786704 -1.24849
-0.399577 0.0830555 -1.2444
-0.387338 0.113936 -1.22674
-0.383806 0.0571717 -1.25993
-0.397578 0.115328 -1.22489
-0.406463 0.0620908 -1.25644
-0.397056 0.0937288 -1.24124
-0.385205 0.0918678 -1.24159
-0.388692 0.0805709 -1.24641
-0.391239 0.103003 -1.23285
-0.37807 0.11179 -1.22879
-0.382216 0.0674389 -1.25311
-0.380783 0.102016 -1.23514
-0.375149 0.0889411 -1.24307
-0.406434 0.0962281 -1.23862
-0.402239 0.106467 -1.23017
-0.367516 0.109952 -1.23037
-0.363589 0.0870651 -1.24424
-0.343002 0.0829485 -1.24768
-0.370989 0.0651524 -1.25557
-0.347222 0.10578 -1.23389
-0.357661 0.10829 -1.23203
-0.332043 0.113264 -1.22947
-0.352423 0.117272 -1.22609
-0.3599 0.0980501 -1.23853
-0.355945 0.0744788 -1.25029
-0.364927 0.120716 -1.2246
-0.335978 0.103462 -1.23549
-0.339384 0.0937604 -1.24136
-0.344248 0.116385 -1.22862
-0.361203 0.0636618 -1.25687
-0.344786 0.0710507 -1.25156
-0.354178 0.0848454 -1.24583
-0.363978 0.0528095 -1.26359
-0.315381 0.0660897 -1.25841
-0.325443 0.101071 -1.23747
-0.317043 0.0880889 -1.24437
-0.322291 0.0787473 -1.25102
-0.304452 0.0970196 -1.24042
-0.311402 0.10944 -1.23233
-0.335347 0.0700855 -1.25284
-0.308722 0.121106 -1.22843
-0.317405 0.0540142 -1.26541
-0.33312 0.0808427 -1.24919
-0.338814 0.0585881 -1.26161
-0.322736 0.112 -1.23178
-0.314823 0.0993527 -1.23869
-0.311693 0.0767919 -1.25373
-0.320199 0.122792 -1.22725
-0.301853 0.107981 -1.23336
-0.298345 0.118192 -1.22897
-0.306248 0.0523001 -1.26554
-0.27725 0.114158 -1.23283
-0.274055 0.124524 -1.22778
-0.278561 0.0696351 -1.2586
-0.265125 0.078329 -1.25402
-0.271728 0.0568452 -1.26438
-0.292899 0.0614131 -1.26076
-0.300362 0.0742654 -1.25551
-0.295925 0.0837924 -1.24887
-0.268298 0.100557 -1.23952
-0.290023 0.105397 -1.23554
-0.272496 0.0905473 -1.24787
-0.275961 0.080751 -1.25282
-0.263366 0.121969 -1.22937
-0.289652 0.0719559 -1.25655
-0.268097 0.0669584 -1.26074
-0.28175 0.0582353 -1.26212
-0.28738 0.116534 -1.23059
-0.293857 0.0951947 -1.23971
-0.304503 0.0629667 -1.2598
-0.266077 0.112165 -1.23494
-0.280402 0.103582 -1.23637
-0.28633 0.0821876 -1.25224
-0.234859 0.106146 -1.24108
-0.240236 0.0843915 -1.2508
-0.231569 0.11622 -1.23543
-0.245267 0.108462 -1.2398
-0.242105 0.117854 -1.23353
-0.246796 0.0632607 -1.26558
-0.237211 0.0951709 -1.2459
-0.252727 0.120283 -1.2311
-0.256866 0.065384 -1.26256
-0.235535 0.0612583 -1.26675
-0.247643 0.0967696 -1.24494
-0.226908 0.0934853 -1.24672
-0.261864 0.088839 -1.24798
-0.2565 0.110326 -1.23782
-0.232343 0.0718361 -1.25954
-0.229996 0.0828937 -1.2534
-0.259155 0.0993551 -1.24323
-0.250995 0.0863194 -1.24844
-0.148085 0.0745646 -0.906324
-0.149734 0.0665302 -0.907309
-0.220241 0.0694659 -1.25868
-0.139033 0.0821196 -0.90847
-0.217999 0.124902 -1.23046
-0.142598 0.0664704 -0.913951
-0.146307 0.0820734 -0.905002
-0.140708 0.0735831 -0.910908
-0.128718 0.0349365 -0.841957
-0.225446 0.0595594 -1.26794
-0.12329 0.0801992 -0.927984
-0.11692 0.0707787 -0.934551
-0.13306 0.0732277 -0.924088
-0.125039 0.0716785 -0.929461
-0.118737 0.0627568 -0.937496
-0.134897 0.0651456 -0.924218
-0.115079 0.0783966 -0.932362
-0.131179 0.0809038 -0.919784
-0.126831 0.0641327 -0.931662
-0.0953952 0.0495812 -0.949109
-0.102073 0.059787 -0.945775
-0.10032 0.0676515 -0.942081
-0.0902536 0.0743026 -0.936145
-0.0852367 0.0563302 -0.947151
-0.0985921 0.07561 -0.935432
-0.103833 0.0514381 -0.947391
-0.106899 0.0774398 -0.93449
-0.086962 0.0896534 -0.928983
-0.088605 0.0816794 -0.932751
-0.0936778 0.0582949 -0.947232
-0.0968642 0.0837074 -0.932818
-0.0868907 0.0481067 -0.949287
-0.105127 0.0849188 -0.9323
-0.110443 0.0615725 -0.942447
-0.0574548 0.066307 -0.925128
-0.063994 0.0762119 -0.925109
-0.0685618 0.0524799 -0.941222
-0.0802906 0.0802396 -0.931667
-0.0835842 0.0643085 -0.941915
-0.0563825 0.0735177 -0.920093
-0.0589908 0.0580297 -0.933651
-0.0606634 0.0504703 -0.935708
-0.070549 0.0858549 -0.926913
-0.0736716 0.0705988 -0.933606
-0.0721763 0.0780058 -0.929141
-0.0820041 0.072054 -0.936138
-0.0785417 0.0460639 -0.946994
-0.0656604 0.0682794 -0.929613
-0.0670551 0.0606746 -0.935748
-0.0769248 0.0547206 -0.945002
-0.0329931 0.0855837 -0.987558
-0.02141 0.1 -0.983484
-0.0221267 0.0541738 -0.975878
-0.00468502 0.0957677 -0.977895
-0.0264749 0.0740501 -0.985434
-0.0249663 0.0824268 -0.984664
-0.0150462 0.0888731 -0.980669
-0.00975602 0.0696308 -0.975435
-0.003321 0.0590651 -0.971952
-0.0200053 0.0630295 -0.976862
-0.016409 0.0805617 -0.98009
-0.0229249 0.0915446 -0.984543
-0.0154103 0.0435778 -0.972738
-0.0083419 0.0779826 -0.976567
0.00166543 0.0846636 -0.974927
-0.00553384 0.0500223 -0.971186
0.00045637 0.0767709 -0.974048
-0.0125293 0.0980395 -0.981182
-0.0122442 0.0607254 -0.974641
-0.024325 0.0457121 -0.974253
-0.00210583 0.0672313 -0.97272
-0.0187415 0.0713699 -0.978446
-0.00609046 0.0870584 -0.977383
-0.00787251 0.0416553 -0.969767
-0.0136423 0.0526236 -0.97399
0.0243499 0.0621748 -0.973481
0.0123078 0.091818 -0.975435
0.0307384 0.0889906 -0.982456
0.0044806 0.094002 -0.975914
0.011523 0.0463757 -0.96916
0.0291494 0.0429424 -0.972124
0.00454179 0.0567171 -0.970424
0.00701357 0.065701 -0.971438
0.0236088 0.0992422 -0.980217
0.0176127 0.0731322 -0.973673
0.0191412 0.0810322 -0.97577
0.00319491 0.0488434 -0.969623
0.0218628 0.0904251 -0.977885
0.0264876 0.0707904 -0.976302
0.0138031 0.0556704 -0.970343
0.0108678 0.0832461 -0.974177
0.0152552 0.063568 -0.97165
0.0289598 0.0801961 -0.979539
0.00869387 0.0741797 -0.972935
0.0203705 0.0451533 -0.96916
0.0376248 0.0780206 -0.985914
0.0362115 0.0700819 -0.980845
0.0425942 0.0968128 -0.991507
0.043055 0.0588582 -0.982693
0.062155 0.0794684 -1.07238
0.0405892 0.0505497 -0.977892
0.0328866 0.0979575 -0.984962
0.0329731 0.0602635 -0.978466
0.044993 0.0678489 -0.990464
0.0564218 0.0679375 -0.996941
0.0481798 0.0774947 -1.00045
0.0580935 0.0928563 -1.00354
0.0384535 0.0417203 -0.976178
0.0528248 0.0575235 -0.99198
0.0407365 0.0878688 -0.990937
0.0508145 0.0493693 -0.986249
0.102134 0.117642 -1.24961
0.115763 0.126346 -1.24828
0.111908 0.104889 -1.24224
0.112322 0.0946104 -1.24222
0.114032 0.115655 -1.25249
0.135011 0.0901224 -1.26827
0.148052 0.109037 -1.25729
0.132087 0.0677648 -1.28003
0.125651 0.113819 -1.25486
0.136811 0.111551 -1.2549
0.130169 0.0568351 -1.28599
0.134619 0.100631 -1.26313
0.138147 0.12161 -1.25031
0.121276 0.0816921 -1.26983
0.147497 0.0986024 -1.26489
0.157845 0.0854971 -1.27153
0.145362 0.0772297 -1.27717
0.148956 0.119608 -1.2522
0.14296 0.0549781 -1.2893
0.143583 0.0653287 -1.28346
0.156353 0.0637373 -1.28652
0.125348 0.123389 -1.24904
0.125166 0.103235 -1.26064
0.144895 0.0872699 -1.26996
0.133013 0.0784698 -1.27408
0.121941 0.0916852 -1.26515
0.120533 0.0701121 -1.27833
0.174193 0.126704 -1.24923
0.172217 0.105062 -1.26143
0.189995 0.0563564 -1.28925
0.182119 0.081293 -1.27604
0.166856 0.061113 -1.28778
0.171132 0.0942674 -1.26918
0.184858 0.113376 -1.25875
0.168389 0.0727816 -1.28122
0.184571 0.123705 -1.25261
0.19043 0.0785192 -1.27548
0.192343 0.0679734 -1.2825
0.170817 0.115139 -1.25518
0.179964 0.0589189 -1.28842
0.168535 0.0829145 -1.27402
0.180542 0.0915627 -1.26931
0.179989 0.0697637 -1.28249
0.182584 0.102843 -1.26386
0.193929 0.0901657 -1.26956
0.158043 0.0964632 -1.26597
0.159764 0.10679 -1.25899
0.194926 0.101418 -1.26654
0.22074 0.117723 -1.25893
0.220278 0.127874 -1.25317
0.20943 0.119962 -1.25876
0.214646 0.0732823 -1.27451
0.215929 0.0639313 -1.28783
0.203381 0.0764303 -1.27471
0.205948 0.098817 -1.26796
0.233007 0.115998 -1.26062
0.209567 0.110913 -1.26688
0.197874 0.122837 -1.25724
0.203046 0.0870052 -1.26932
0.218194 0.107478 -1.26556
0.217335 0.0853073 -1.2697
0.196372 0.112731 -1.26362
0.201407 0.0646879 -1.28298
0.20369 0.0544494 -1.29159
0.208126 0.0448043 -0.994924
0.233523 0.126117 -1.2546
0.20202 0.0554866 -0.993969
0.209984 0.0622352 -0.990683
0.212148 0.0707765 -0.989653
0.20614 0.0819676 -0.990243
0.201175 0.0640632 -0.991752
0.199333 0.0463584 -0.995893
0.202168 0.0725839 -0.990127
0.207286 0.090489 -0.991009
0.208694 0.0991361 -0.993124
0.207687 0.0535552 -0.992501
0.231094 0.0843429 -0.98678
0.225725 0.0582344 -0.98592
0.233692 0.0648692 -0.983539
0.238643 0.0738857 -0.984207
0.228085 0.0666221 -0.985423
0.215047 0.0883825 -0.99011
0.23362 0.0475916 -0.985582
0.217447 0.0685829 -0.98747
0.217974 0.0513922 -0.989943
0.224452 0.0948682 -0.990423
0.223163 0.0494393 -0.987257
0.239896 0.0825446 -0.985599
0.239131 0.0457977 -0.983837
0.234562 0.056322 -0.984116
0.212558 0.0795071 -0.989395
0.214334 0.0424899 -0.991972
0.222525 0.0779655 -0.987564
0.234683 0.0937594 -0.988115
0.228504 0.0755266 -0.985728
0.218351 0.0978261 -0.992499
0.216589 0.0599492 -0.988191
0.222999 0.0864258 -0.988241
0.260769 0.0963147 -0.987959
0.258405 0.0504362 -0.979779
0.257855 0.0874172 -0.984683
0.266936 0.0572603 -0.978503
0.264232 0.0767424 -0.981546
0.241209 0.0913255 -0.987255
0.2442 0.0999305 -0.991483
0.248897 0.0807517 -0.984111
0.241579 0.0543017 -0.982388
0.261167 0.0591891 -0.979839
0.250858 0.060971 -0.980506
0.249409 0.0437208 -0.982002
0.254523 0.0700435 -0.981001
0.255961 0.0786109 -0.982403
0.255798 0.0420098 -0.980367
0.261665 0.0678378 -0.980399
0.254084 0.0986405 -0.989818
0.267563 0.0859636 -0.983566
0.270691 0.0947393 -0.986893
0.25175 0.0898641 -0.985828
0.244148 0.0714462 -0.982374
0.250025 0.0524767 -0.980947
0.244968 0.0628735 -0.981813
0.267633 0.0486821 -0.978525
0.290747 0.0998507 -0.991814
0.274896 0.0836443 -0.983319
0.274677 0.0467503 -0.97688
0.277085 0.064026 -0.977834
0.29501 0.0603631 -0.977782
0.291331 0.0798123 -0.982515
0.282536 0.0731791 -0.97994
0.291636 0.0432308 -0.976301
0.28889 0.0915969 -0.986797
0.284058 0.0536514 -0.97601
0.277684 0.0925587 -0.986634
0.277364 0.055327 -0.976868
0.273145 0.0749499 -0.981071
0.28955 0.0712899 -0.97903
0.295596 0.0888336 -0.987247
0.300356 0.0984743 -0.992682
0.294607 0.0518559 -0.97691
0.284918 0.0822841 -0.98287
0.283153 0.0449718 -0.975999
0.287976 0.0626287 -0.976952
0.272283 0.0664469 -0.979504
0.319689 0.0952363 -0.996113
0.315283 0.0571187 -0.981289
0.309832 0.0764697 -0.984089
0.325647 0.084581 -0.991839
0.318771 0.0469091 -0.976386
0.306604 0.0878919 -0.988081
0.298656 0.0696295 -0.979668
0.326642 0.0642275 -0.984288
0.31759 0.0661719 -0.982597
0.302306 0.0421599 -0.976609
0.311878 0.0490452 -0.978258
0.303283 0.0509956 -0.978791
0.313625 0.0853778 -0.989214
0.308343 0.0399631 -0.974947
0.310407 0.0972599 -0.994069
0.307076 0.0595774 -0.979929
0.307358 0.0676341 -0.981076
0.320958 0.0752242 -0.985935
0.302771 0.0786099 -0.983157
0.330724 0.0942483 -0.999904
0.325351 0.0553864 -0.981235
0.346968 0.0610435 -0.989976
0.353512 0.0504033 -0.988318
0.350169 0.0699664 -0.99681
0.329763 0.0730932 -0.988814
0.34895 0.102977 -1.02969
0.341441 0.0924821 -1.00483
0.331689 0.053495 -0.981844
0.356995 0.0795989 -1.00246
0.347483 0.0817207 -0.999893
0.337985 0.0430904 -0.980603
0.334141 0.0822344 -0.995855
0.353682 0.0911657 -1.00684
0.329948 0.0445145 -0.978131
0.344555 0.0521936 -0.984598
0.357508 0.0594376 -0.994967
0.349596 0.0410833 -0.983456
0.341797 0.0721024 -0.992278
0.337087 0.0625148 -0.986551
0.380532 0.0565352 -1.00462
0.376325 0.047113 -0.999987
0.369447 0.0579593 -1.0007
0.375425 0.0672051 -1.00649
0.371562 0.0786154 -1.0075
0.365668 0.0695666 -1.00287
0.495065 0.121217 -1.26884
0.391973 0.0461896 -1.00419
0.365962 0.0491176 -0.993517
0.532417 0.0928322 -1.2894
0.52542 0.0960987 -1.28723
0.535455 0.0828435 -1.2948
0.508736 0.108773 -1.27765
0.530713 0.125608 -1.27136
0.548029 0.0804835 -1.29754
0.521178 0.106593 -1.28148
0.505728 0.118963 -1.27203
0.533068 0.104216 -1.28353
0.552482 0.0693929 -1.30348
0.522219 0.11736 -1.27504
0.531482 0.114955 -1.27754
0.575957 0.0760985 -1.30401
0.573894 0.108792 -1.28397
0.556936 0.121646 -1.27558
0.584183 0.084305 -1.29915
0.547354 0.113031 -1.27997
0.587658 0.0619882 -1.31195
0.558658 0.0889249 -1.29501
0.558423 0.0999043 -1.28834
0.576113 0.0643732 -1.30978
0.548572 0.0917137 -1.29158
0.559047 0.0665997 -1.30706
0.545558 0.102142 -1.2856
0.572059 0.0974457 -1.2908
0.586921 0.0735938 -1.30577
0.576797 0.0876084 -1.29798
0.559652 0.0778588 -1.30084
0.571173 0.120141 -1.27752
0.546919 0.124528 -1.27384
0.56783 0.0558974 -1.31313
0.556498 0.110563 -1.2818
0.595716 0.126377 -1.27527
0.615273 0.0576287 -1.317
0.622746 0.0769965 -1.3026
0.584071 0.0954513 -1.29222
0.59912 0.0818256 -1.30047
0.623786 0.0895012 -1.29771
0.597731 0.10403 -1.28856
0.609033 0.113353 -1.28502
0.582768 0.117544 -1.27998
0.609933 0.0909568 -1.29584
0.599773 0.0714192 -1.30752
0.607478 0.124553 -1.27721
0.627071 0.0666988 -1.31355
0.628426 0.0549969 -1.31888
0.598417 0.116154 -1.28285
0.610148 0.0683476 -1.31068
0.596579 0.0930057 -1.29371
0.608851 0.102135 -1.29123
0.601859 0.0598518 -1.31449
0.582419 0.106556 -1.2861
0.654629 0.0624134 -1.31571
0.619277 0.121319 -1.27858
0.625965 0.0999861 -1.29346
0.635826 0.0755123 -1.3059
0.646698 0.117442 -1.28389
0.635587 0.0863666 -1.29938
0.659987 0.0704792 -1.30933
0.648955 0.0952724 -1.29505
0.657096 0.0927735 -1.29752
0.648363 0.0837242 -1.3006
0.653888 0.0736909 -1.30809
0.660092 0.0820773 -1.30251
0.624102 0.11168 -1.28675
0.63863 0.0642863 -1.31379
0.636328 0.10915 -1.2886
0.635107 0.0976849 -1.29465
0.663312 0.0593546 -1.31698
0.648978 0.106898 -1.28975
0.632699 0.120045 -1.28117
0.677594 0.113542 -1.29218
0.686062 0.0887431 -1.30476
0.691333 0.0663816 -1.31688
0.676812 0.12528 -1.28639
0.682103 0.10332 -1.29807
0.676849 0.0804428 -1.30674
0.687836 0.123002 -1.28693
0.658807 0.104248 -1.29281
0.692023 0.0547891 -1.32309
0.681494 0.0911968 -1.3026
0.691668 0.0779337 -1.31033
0.663319 0.127248 -1.28494
0.685749 0.100404 -1.29988
0.705261 0.0759767 -1.31315
0.702892 0.0862867 -1.30652
0.681304 0.0578691 -1.31963
0.660004 0.115941 -1.28773
0.710228 0.0648166 -1.32014
0.687879 0.111687 -1.2939
0.680931 0.0693824 -1.31274
0.731235 0.104846 -1.30092
0.728859 0.12732 -1.28701
0.719209 0.0962705 -1.30491
0.751014 0.0574156 -1.32911
0.735295 0.0714844 -1.32095
0.720012 0.0617633 -1.32342
0.701035 0.108995 -1.29543
0.715805 0.118504 -1.29092
0.719237 0.0845375 -1.31036
0.720004 0.0735933 -1.31678
0.700692 0.12094 -1.28829
0.735236 0.094556 -1.30742
0.727626 0.116592 -1.29387
0.704356 0.0987045 -1.30142
0.715749 0.107666 -1.29846
0.750279 0.0689053 -1.32599
0.738585 0.0597674 -1.32708
-0.463791 0.0274086 -1.2691
-0.457603 0.0499192 -1.25967
-0.462076 0.0380109 -1.26541
-0.422181 0.041265 -1.26051
-0.449897 0.0355004 -1.26789
-0.430623 -0.0159115 -1.29605
-0.445585 0.0460651 -1.26032
-0.460288 -0.022577 -1.30215
-0.434899 0.00837197 -1.28343
-0.44306 0.0218891 -1.27588
-0.438573 -0.00234728 -1.28889
-0.429316 -0.00445625 -1.29072
-0.425572 0.00579753 -1.28571
-0.456936 0.0133859 -1.276
-0.454878 -0.0113991 -1.29247
-0.461859 0.00293977 -1.28558
-0.432838 0.020215 -1.27967
-0.435051 0.04423 -1.25957
-0.44532 -0.0146732 -1.29518
-0.451757 0.0243203 -1.27092
-0.451353 3.94797e-05 -1.28696
-0.410376 0.0508499 -1.26071
-0.417964 -0.00753913 -1.29411
-0.403972 0.00257699 -1.29161
-0.405497 0.0265447 -1.27107
-0.415208 0.00364946 -1.2886
-0.403254 0.0374805 -1.26843
-0.421271 -0.0195517 -1.29925
-0.384913 0.0217086 -1.27755
-0.412046 -0.0212898 -1.30357
-0.389139 0.0459918 -1.26565
-0.396403 -0.0124121 -1.30004
-0.408943 -0.0093544 -1.2977
-0.401236 -0.0240628 -1.30738
-0.414014 0.0396698 -1.26517
-0.388903 0.0104293 -1.28492
-0.409798 0.0153111 -1.28529
-0.399101 0.0480812 -1.26295
-0.394537 0.0351212 -1.2718
-0.366674 0.0409554 -1.26913
-0.377864 0.00787695 -1.28702
-0.36023 -0.00776252 -1.29822
-0.374405 -0.0174791 -1.30244
-0.345724 0.0364814 -1.27271
-0.372473 0.0307026 -1.27349
-0.351889 -0.0217346 -1.30639
-0.363089 0.0171093 -1.28019
-0.354436 0.050506 -1.26553
-0.381997 -0.00353815 -1.29375
-0.356634 0.00505279 -1.2889
-0.378006 0.0442595 -1.26779
-0.381767 0.0329136 -1.27301
-0.358875 0.0283003 -1.27555
-0.386314 -0.013849 -1.3013
-0.368321 0.0055406 -1.28968
-0.350479 0.0256589 -1.27836
-0.35686 0.039772 -1.27092
-0.363909 -0.0192284 -1.30381
-0.32813 0.0214527 -1.28282
-0.319264 0.00763839 -1.2907
-0.320425 0.0433886 -1.26987
-0.342877 0.0485863 -1.2672
-0.30994 0.0415422 -1.27095
-0.317122 -0.0176608 -1.30597
-0.341344 0.0123286 -1.28512
-0.334272 -0.00101357 -1.29261
-0.324064 -0.00396649 -1.29602
-0.3331 0.0462499 -1.26889
-0.335307 0.0359644 -1.27417
-0.316745 0.0187352 -1.28516
-0.31371 0.0304892 -1.27823
-0.338075 0.0237039 -1.2804
-0.331239 0.0100159 -1.28808
-0.342715 -0.0246798 -1.31034
-0.289042 0.0369681 -1.2765
-0.290237 -0.0112849 -1.30476
-0.280284 0.0227605 -1.28382
-0.284474 0.012447 -1.29024
-0.276172 -0.00186788 -1.2994
-0.306466 0.0174276 -1.28637
-0.311798 -0.00632822 -1.29845
-0.287538 0.000282593 -1.29651
-0.284989 0.0483515 -1.27039
-0.294655 0.0142215 -1.28769
-0.291678 0.0256502 -1.28205
-0.302269 0.027561 -1.27999
-0.29751 0.00269955 -1.29185
-0.309642 0.00516108 -1.29202
-0.271786 0.00942756 -1.29217
-0.277149 0.0346945 -1.27835
-0.281912 -0.0248204 -1.31219
-0.301481 -0.00858163 -1.3011
-0.298594 0.0390491 -1.27362
-0.279717 -0.0133781 -1.30581
-0.304342 -0.0200987 -1.30763
-0.249071 0.052251 -1.26754
-0.253143 -0.00651982 -1.30223
-0.267934 -0.0160174 -1.30728
-0.266779 0.0321594 -1.27996
-0.256591 -0.0179411 -1.30897
-0.244739 0.0275814 -1.2841
-0.23971 0.00251278 -1.30066
-0.263013 0.0436573 -1.27725
-0.258389 0.0182853 -1.28765
-0.250239 0.00482477 -1.29675
-0.264689 -0.00475903 -1.3004
-0.261908 0.00774121 -1.29395
-0.232895 0.0253942 -1.28763
-0.236585 0.0142676 -1.2941
-0.255081 0.0302533 -1.2818
-0.269499 0.0209769 -1.28543
-0.240699 0.0388241 -1.27747
-0.238205 0.0494248 -1.27184
-0.24268 -0.00955451 -1.30595
-0.24754 0.0161511 -1.29042
-0.142037 0.0144982 -0.857563
-0.226678 0.0124053 -1.29705
-0.140203 0.0223361 -0.852449
-0.130466 0.0279593 -0.844719
-0.229271 0.000308312 -1.30354
-0.234207 -0.0228406 -1.31521
-0.136082 0.00532724 -0.86143
-0.137804 -0.00175474 -0.867547
-0.131798 -0.0113549 -0.869491
-0.143669 0.00733191 -0.863126
-0.138346 0.0295134 -0.849243
-0.230736 0.0360527 -1.28003
-0.228612 0.0483985 -1.27514
-0.139667 -0.00989175 -0.874256
-0.134012 0.0130862 -0.857116
-0.132358 0.0202507 -0.849553
-0.126484 0.011183 -0.852257
-0.129897 -0.00392598 -0.863309
-0.114542 -0.00720841 -0.858138
-0.11624 -0.0144508 -0.862753
-0.111281 0.00804439 -0.848014
-0.115451 0.0246384 -0.839954
-0.105327 -0.00105934 -0.851995
-0.108043 0.0228163 -0.839102
-0.109628 0.0159114 -0.84148
-0.120538 0.00207565 -0.853843
-0.112868 0.000893959 -0.851314
-0.124676 0.0191382 -0.844701
-0.122189 -0.00496964 -0.860766
-0.128109 0.00399125 -0.857614
-0.117144 0.0169469 -0.843187
-0.106944 -0.00802016 -0.856867
-0.118752 0.00995685 -0.850071
-0.123027 0.0260754 -0.841869
-0.123878 -0.0128174 -0.86515
-0.102153 0.0139915 -0.84279
-0.103722 0.00671135 -0.847157
-0.108545 -0.0160092 -0.861931
-0.0765833 0.0241287 -0.843245
-0.0810132 0.00179011 -0.853634
-0.0856738 0.0186519 -0.842652
-0.0961995 0.00500191 -0.848455
-0.0916248 0.0271366 -0.838701
-0.100602 0.0215778 -0.839553
-0.078037 0.0169729 -0.846222
-0.0977681 -0.00225175 -0.852832
-0.0993297 -0.0100186 -0.857355
-0.0795865 0.00988922 -0.849941
-0.0901467 -0.00416542 -0.854676
-0.0917157 -0.011233 -0.858977
-0.0871262 0.0108027 -0.84661
-0.0825523 -0.00543267 -0.857504
-0.0886678 0.00359935 -0.850526
-0.0840164 -0.0133239 -0.861735
-0.0946671 0.0127338 -0.844381
-0.0931303 0.0198506 -0.84067
-0.0841865 0.0258747 -0.840399
-0.0610949 0.0213901 -0.855424
-0.0703974 0.0157128 -0.851596
-0.0718391 0.00792346 -0.855146
-0.0587594 -0.0108192 -0.876617
-0.0762832 -0.0145251 -0.865732
-0.0747494 -0.00747348 -0.861741
-0.0624492 0.0140025 -0.858972
-0.0639232 0.00673527 -0.862049
-0.0558987 0.00478588 -0.871367
-0.0654179 -0.00130445 -0.864738
-0.0675621 0.030827 -0.846651
-0.0596073 0.0291972 -0.853603
-0.0669129 -0.00850626 -0.86791
-0.0733402 0.000452105 -0.858312
-0.0574301 -0.00283138 -0.873945
-0.0528691 0.0204599 -0.870903
-0.0689835 0.02309 -0.848279
-0.0543004 0.0130243 -0.87001
-0.0683645 -0.0166807 -0.871639
-0.0499604 0.0352073 -0.860573
-0.0486977 -0.00469417 -0.883709
-0.0501731 -0.0119094 -0.882113
-0.0445746 0.0185868 -0.913838
-0.0285591 -0.0164705 -0.967771
-0.04339 0.0266379 -0.912316
-0.047126 0.00387558 -0.881929
-0.0294878 0.0196086 -0.960146
-0.0167454 -0.00142543 -0.966232
-0.00441947 0.0137057 -0.965776
-0.0096922 0.0325766 -0.968619
-0.0111261 0.0246892 -0.968219
-0.00994952 -0.0120222 -0.963088
-0.0275026 0.0283167 -0.964354
-0.00618089 0.00547017 -0.965038
-0.025896 0.0364803 -0.973908
-0.00263529 0.0225618 -0.966285
-0.0132028 0.0159145 -0.967774
-0.0022433 -0.0135356 -0.961031
-0.0149478 0.00735942 -0.967145
-0.0265151 -0.00865414 -0.967977
-0.0193589 0.0263098 -0.971852
-0.0173261 0.0349396 -0.971872
-0.0187774 -0.00996288 -0.965616
-0.0199271 -0.0186256 -0.965479
-0.0210563 0.0173344 -0.971564
-0.00810291 -0.00311241 -0.96386
-0.00051211 0.0312474 -0.966947
-0.0228267 0.00923197 -0.970223
0.00137636 0.0397941 -0.968197
-0.000275796 -0.00504355 -0.961625
-0.0249738 0.000573195 -0.96807
0.0163615 0.0275281 -0.96595
0.00573716 0.0208955 -0.965045
0.0230098 0.0173314 -0.965321
0.0189044 0.0362005 -0.967939
0.0246801 0.0256966 -0.967301
0.0170442 -0.00871459 -0.961207
0.0278917 -0.00169511 -0.962795
0.029689 0.00654994 -0.964825
0.0268804 0.034619 -0.969628
0.0142442 0.0188756 -0.964572
0.0107374 0.00192725 -0.962264
0.0123945 0.010008 -0.963462
0.0206205 0.00857803 -0.963583
0.0190409 0.000404937 -0.962171
0.00724461 0.0291038 -0.965981
0.00915939 0.0381572 -0.967537
0.00872203 -0.00662752 -0.960953
0.00372458 0.0121211 -0.96434
0.0364378 0.0327765 -0.972847
0.0478722 0.0397863 -0.982008
0.0479116 0.00305773 -0.972786
0.0455693 0.0315264 -0.977879
0.0456709 -0.00514834 -0.970788
0.0412053 0.0136355 -0.970421
0.0364447 -0.00312496 -0.96643
0.0555624 0.0295485 -0.984922
0.0382749 0.00501681 -0.967792
0.057655 0.00202199 -0.979274
0.0524611 0.0206818 -0.980333
0.0607462 0.00993152 -0.984785
0.0342149 0.0241114 -0.969736
0.0503034 0.0118819 -0.976379
0.042439 0.0221605 -0.973564
0.0581982 0.0387043 -0.987143
0.0319089 0.0154334 -0.967143
0.065881 0.0283093 -0.991417
0.073904 0.0176156 -0.996116
0.0626906 0.0189031 -0.989402
0.0709724 0.00862821 -0.992803
0.131187 0.0470805 -1.29487
0.110272 -0.0120632 -0.913334
0.141211 0.0431756 -1.29541
0.153958 0.0524943 -1.29172
0.140075 0.0328604 -1.30031
0.0866658 -0.0153781 -0.910352
0.151043 0.0179149 -1.30596
0.153506 0.0413091 -1.29764
0.153398 0.0299015 -1.3026
0.109254 -0.00219522 -0.920613
0.10445 -0.0109237 -0.915521
0.0964639 -0.00810028 -0.915521
0.0930166 -0.0164967 -0.908785
0.189028 0.0338718 -1.30335
0.187768 0.0234824 -1.30722
0.201396 0.0323801 -1.30557
0.176867 0.0252975 -1.30487
0.165149 0.0382399 -1.29948
0.19057 0.0458284 -1.2963
0.16318 0.0278242 -1.30319
0.202013 0.0205425 -1.30948
0.176807 0.0478367 -1.29445
0.166893 0.0504707 -1.29348
0.120005 -0.0140861 -0.911134
0.116442 -0.00352573 -0.917719
0.177298 0.0369913 -1.30111
0.212781 0.0287885 -1.30698
0.211412 0.018527 -1.31029
0.224919 0.038353 -1.30189
0.214661 0.0410975 -1.3013
0.225993 0.027559 -1.30757
0.201012 0.0430201 -1.29887
0.224909 0.0154842 -1.31214
0.215196 0.0521434 -1.29565
0.231999 0.0501617 -1.29844
0.198239 0.00278245 -1.02416
0.20596 0.0356101 -0.99796
0.204974 0.0183918 -1.00866
0.197502 0.028989 -1.00311
0.20637 0.00983497 -1.01528
0.208125 -0.00877498 -1.03143
0.208685 -0.0178921 -1.03836
0.213481 0.0250382 -0.999679
0.199072 0.020591 -1.01167
0.198461 0.0113269 -1.01709
0.207276 0.0272367 -1.00265
0.199487 -0.00701967 -1.03217
0.199162 0.0383442 -0.999184
0.21357 -0.00100048 -1.01957
0.207471 0.00043523 -1.02288
0.21527 0.0165631 -1.0058
0.213946 0.00766253 -1.01224
0.217323 -0.0195411 -1.03817
0.214454 -0.0105687 -1.02841
0.240633 -0.0162288 -1.01683
0.229274 0.0213015 -0.99455
0.229349 -0.00454879 -1.01287
0.231254 0.0129868 -1.00012
0.222738 0.00613267 -1.0092
0.238404 0.00234065 -1.00312
0.221771 0.0318148 -0.992087
0.22378 0.0408458 -0.989288
0.229854 0.00386773 -1.00613
0.230736 0.0387874 -0.987713
0.230314 -0.0143345 -1.0207
0.239405 -0.00689002 -1.00946
0.221054 0.014867 -1.00282
0.22398 -0.0123831 -1.02459
0.223608 -0.00330317 -1.01625
0.239221 0.0281219 -0.988899
0.222878 0.0232222 -0.996781
0.241074 0.0371365 -0.986063
0.244905 -0.00822621 -1.00609
0.214337 0.0342841 -0.994921
0.230401 0.0306023 -0.990458
0.237029 0.0110969 -0.99739
0.238663 0.0195317 -0.992558
0.245324 -0.0178639 -1.01288
0.261149 -0.0119845 -1.00034
0.246656 0.00927618 -0.995088
0.266952 0.0401524 -0.978916
0.246602 0.0349581 -0.983766
0.245684 0.0175462 -0.990199
0.269574 -0.00501626 -0.991915
0.261212 0.0138132 -0.985406
0.254187 -0.00138755 -0.997957
0.262466 0.00561266 -0.990008
0.261901 0.031342 -0.979836
0.25641 0.0332442 -0.981807
0.261805 -0.00372152 -0.995022
0.254394 0.0241924 -0.984115
0.24655 0.0268157 -0.986528
0.246128 5.73011e-05 -1.00044
0.253565 0.00737281 -0.99264
0.262804 0.0230437 -0.982038
0.269861 -0.0141086 -0.996587
0.268712 0.00372698 -0.987591
0.254833 -0.0105618 -1.00335
0.254679 0.0157267 -0.987722
0.277238 0.0101522 -0.982018
0.278786 0.0018157 -0.985282
0.279151 0.0276221 -0.977514
0.282232 0.0362171 -0.976466
0.272239 0.0382778 -0.977259
0.276339 -0.0155909 -0.993628
0.284625 7.5149e-06 -0.983156
0.285281 -0.00855134 -0.987061
0.287137 0.00836462 -0.980571
0.294749 0.02415 -0.975072
0.287218 0.017083 -0.978585
0.289446 0.0346455 -0.976161
0.294052 0.00652501 -0.979309
0.269961 0.0205685 -0.980482
0.294457 -0.00181445 -0.981826
0.289335 0.0258779 -0.976969
0.286649 -0.0180531 -0.991753
0.276802 -0.00730361 -0.989233
0.279032 0.0194296 -0.979471
0.29211 -0.0190725 -0.989426
0.272358 0.0295473 -0.978349
0.270861 0.0121381 -0.983652
0.296148 0.015688 -0.97728
0.293213 -0.0109142 -0.98535
0.303152 0.0133011 -0.975731
0.30529 0.0309854 -0.972215
0.310285 0.00289234 -0.977728
0.312384 -0.00546596 -0.980414
0.321497 0.00147367 -0.977573
0.32099 0.00969177 -0.976101
0.314459 0.0291121 -0.972409
0.324455 0.0274954 -0.974961
0.301185 -0.00364294 -0.981014
0.31876 -0.0159601 -0.982429
0.303369 0.00485623 -0.978377
0.304119 0.0223439 -0.972858
0.301799 -0.0123372 -0.984218
0.312233 0.0201762 -0.973116
0.31028 -0.0147082 -0.983401
0.323843 0.0187106 -0.975197
0.326783 -0.0180466 -0.981636
0.316396 0.0379861 -0.973968
0.299801 0.0331566 -0.974666
0.317425 -0.00710373 -0.979482
0.312099 0.0122988 -0.975291
0.342971 0.0239601 -0.978926
0.345993 0.0325706 -0.980485
0.326449 0.0358867 -0.975817
0.328166 -0.000697239 -0.978104
0.340013 0.00604129 -0.978547
0.346715 -0.0126509 -0.98185
0.328561 -0.00903848 -0.979426
0.355915 0.0309724 -0.983536
0.346868 -0.0044167 -0.980847
0.350231 0.0132129 -0.980488
0.354756 0.022059 -0.981405
0.331307 0.016802 -0.976782
0.355222 -0.0146373 -0.983913
0.342259 0.0151822 -0.978403
0.334521 0.0254749 -0.977112
0.336999 0.0344324 -0.978294
0.336317 -0.0108531 -0.980369
0.338816 -0.0027139 -0.979228
0.349624 0.0049542 -0.980431
0.331186 0.00851902 -0.977292
0.377629 0.0274838 -0.994262
0.363043 0.020491 -0.984662
0.388213 0.0172996 -0.997795
0.358353 0.0398262 -0.987486
0.359448 0.00249458 -0.983259
0.371001 0.00963438 -0.9876
0.390045 -0.0118219 -0.997317
0.358783 -0.00576562 -0.983417
0.376114 0.0187192 -0.989907
0.37231 0.0380022 -0.993438
0.362198 0.0114712 -0.983435
0.3927 0.0260396 -1.0024
0.370611 0.00131254 -0.986735
0.367274 -0.0163942 -0.986926
0.383937 0.00795497 -0.994201
0.367067 -0.00803467 -0.986567
0.3766 -0.0184338 -0.990905
0.382532 0.0363777 -1.00003
0.380283 -0.00123196 -0.991838
0.379839 -0.00958974 -0.990874
0.367187 0.0293252 -0.987912
0.406597 -0.00504231 -1.00606
0.404885 0.024289 -1.03272
0.405649 -0.013475 -1.00594
0.395361 -0.00257482 -0.999495
0.410834 0.00432 -1.0067
0.418806 -0.0161172 -1.03668
0.396914 0.00596756 -1.00229
0.396891 0.0346336 -1.0052
0.401817 0.0150264 -1.02457
0.5782 0.041174 -1.3172
0.574296 0.0288128 -1.24066
0.574576 0.052591 -1.31554
0.592591 0.0273072 -1.32375
0.586868 0.0390628 -1.32138
0.588743 0.0505137 -1.31815
0.601574 0.013314 -1.3386
0.612464 -0.0112372 -1.35703
0.608219 0.00119736 -1.34548
0.596813 0.0154821 -1.33112
0.602784 0.0481414 -1.32152
0.625707 0.0434113 -1.32446
0.615153 -0.00107725 -1.34964
0.647817 -0.0179745 -1.35944
0.631564 0.00845737 -1.34461
0.634128 -0.0165017 -1.35889
0.620958 -0.0132733 -1.35732
0.641671 0.0175143 -1.33901
0.61603 0.022489 -1.3349
0.628931 0.0316432 -1.3301
0.634438 -0.00412735 -1.35204
0.646141 -0.00684205 -1.35316
0.613339 0.0341984 -1.329
0.616902 0.0461353 -1.32347
0.621925 -0.0256702 -1.3567
0.619396 0.0106882 -1.34201
0.604867 0.0362994 -1.32756
0.602769 0.024921 -1.33292
0.644043 0.00569378 -1.3459
0.622404 0.0105014 -1.34205
0.629824 0.0198782 -1.3367
0.681399 0.0218232 -1.33966
0.640498 0.0524516 -1.32058
0.67016 0.0366575 -1.33095
0.67942 0.0124705 -1.35049
0.675408 -0.0116252 -1.36197
0.666997 0.0481327 -1.32396
0.658904 0.0153268 -1.3454
0.654284 0.0384698 -1.32966
0.678316 -0.023466 -1.36685
0.64323 0.0416452 -1.32675
0.655603 0.0261468 -1.33791
0.655331 0.00343902 -1.35113
0.688691 0.0100489 -1.34974
0.671383 0.0244721 -1.34056
0.682159 -0.00142857 -1.35785
0.658001 -0.0214987 -1.36152
0.681999 0.000364954 -1.35704
0.640297 0.0292404 -1.33279
0.660729 -0.0091042 -1.35664
0.652828 0.0502087 -1.32241
0.689814 -0.0265149 -1.37093
0.692028 -0.0142057 -1.36479
0.712763 -0.00652327 -1.36076
0.7097 0.0290978 -1.34015
0.696733 0.0432629 -1.32938
0.717058 0.0168819 -1.34702
0.707632 0.052583 -1.32626
0.696938 0.0319624 -1.33556
0.731002 -0.0225732 -1.37055
0.721413 -0.0194088 -1.36871
0.730309 0.00276476 -1.35704
0.696627 0.0078158 -1.34978
0.702627 -0.0169347 -1.36656
0.713863 0.00502775 -1.35342
0.733061 -0.00969624 -1.36369
0.708066 0.0409332 -1.33311
0.704771 -0.00483552 -1.35829
0.68022 0.0338271 -1.3318
0.722911 0.0148567 -1.35043
0.693442 0.0197246 -1.34211
0.680608 0.045705 -1.32617
0.772387 -0.0172093 -1.37243
0.773141 0.00697962 -1.35826
0.75188 0.0459898 -1.33659
0.743274 -0.0119224 -1.36511
0.772518 -0.00527295 -1.36228
0.757924 0.0222302 -1.35117
0.742895 0.0482895 -1.3332
0.724631 0.0382727 -1.33708
0.729251 0.026788 -1.34401
0.740708 0.000171563 -1.35907
0.755301 0.0344007 -1.34289
0.757046 -0.0024938 -1.36126
0.759268 -0.0143641 -1.36753
0.747225 0.0122527 -1.35442
0.720851 0.0499257 -1.32986
0.756442 0.00982966 -1.35748
0.747085 -0.0245584 -1.37292
0.732665 0.0364077 -1.34
0.74282 0.0243101 -1.34797
-0.449341 -0.0261313 -1.30275
-0.442468 -0.0403107 -1.30968
-0.464731 -0.0725025 -1.32385
-0.45128 -0.0371201 -1.30797
-0.443061 -0.0784791 -1.3295
-0.464264 -0.0613659 -1.31956
-0.438788 -0.0662508 -1.325
-0.453384 -0.0749675 -1.32778
-0.462813 -0.0461172 -1.309
-0.462745 -0.0345908 -1.30623
-0.437839 -0.0278919 -1.30337
-0.430807 -0.0530407 -1.31438
-0.455313 -0.0487 -1.31227
-0.446362 -0.0900779 -1.33794
-0.449569 -0.0633329 -1.323
-0.41006 -0.0470273 -1.32117
-0.414374 -0.0594843 -1.32442
-0.418876 -0.0830435 -1.33443
-0.428328 -0.0412522 -1.31023
-0.422869 -0.0569425 -1.31975
-0.401671 -0.0618882 -1.32483
-0.399504 -0.0497964 -1.32452
-0.405464 -0.0346128 -1.31477
-0.428131 -0.0307361 -1.30369
-0.401315 -0.0733395 -1.32608
-0.414073 -0.0988294 -1.34428
-0.417659 -0.0718456 -1.32752
-0.434691 -0.0927982 -1.34138
-0.414572 -0.0330039 -1.30883
-0.405994 -0.0846418 -1.33371
-0.427131 -0.106963 -1.34848
-0.42556 -0.0958454 -1.34227
-0.438745 -0.105577 -1.34571
-0.424462 -0.0678836 -1.32603
-0.432582 -0.0805738 -1.33276
-0.367649 -0.0314648 -1.3082
-0.378628 -0.105211 -1.34906
-0.363372 -0.0570958 -1.32426
-0.373117 -0.0822685 -1.33707
-0.390646 -0.0264209 -1.30909
-0.374471 -0.0937123 -1.344
-0.393458 -0.0769015 -1.32901
-0.385547 -0.0519805 -1.32341
-0.395143 -0.0882604 -1.33658
-0.388664 -0.103451 -1.34751
-0.37776 -0.066407 -1.32919
-0.360326 -0.0446549 -1.31753
-0.383416 -0.0782863 -1.33482
-0.35533 -0.0332442 -1.31138
-0.389386 -0.0643546 -1.32591
-0.395318 -0.0385553 -1.31662
-0.400757 -0.10027 -1.34477
-0.365733 -0.0690707 -1.33052
-0.371722 -0.0434415 -1.31733
-0.386956 -0.091 -1.34168
-0.379139 -0.0285403 -1.30785
-0.323272 -0.0413321 -1.31903
-0.324877 -0.0527413 -1.32584
-0.341485 -0.0625701 -1.33049
-0.34582 -0.0368364 -1.31499
-0.351395 -0.0987737 -1.34871
-0.327425 -0.103478 -1.35179
-0.330023 -0.0262741 -1.31081
-0.358273 -0.0832944 -1.33847
-0.354909 -0.071466 -1.33207
-0.334091 -0.0770732 -1.33956
-0.336751 -0.0887253 -1.34481
-0.348881 -0.0870666 -1.34206
-0.346012 -0.0750633 -1.33624
-0.364998 -0.0969392 -1.34605
-0.330768 -0.0651139 -1.33302
-0.333902 -0.0382429 -1.31725
-0.338956 -0.0506657 -1.32452
-0.319718 -0.0294651 -1.31258
-0.326212 -0.0922924 -1.34648
-0.340988 -0.10202 -1.35024
-0.353178 -0.060233 -1.32678
-0.349097 -0.0482757 -1.32133
-0.295138 -0.0725258 -1.33809
-0.285246 -0.0363037 -1.31967
-0.291113 -0.0997657 -1.3534
-0.307883 -0.0311864 -1.31508
-0.317829 -0.067253 -1.33459
-0.310016 -0.0818224 -1.34171
-0.297416 -0.034443 -1.31763
-0.299251 -0.0848638 -1.34381
-0.303916 -0.0981321 -1.35073
-0.312179 -0.0437405 -1.32222
-0.303511 -0.057905 -1.33175
-0.318436 -0.107771 -1.35517
-0.302058 -0.0465165 -1.32406
-0.314986 -0.0947605 -1.34836
-0.315776 -0.0554606 -1.32838
-0.293688 -0.0610096 -1.33419
-0.323989 -0.0804254 -1.34096
-0.28899 -0.0486139 -1.32604
-0.287292 -0.0871818 -1.34679
-0.284947 -0.0757576 -1.34
-0.307268 -0.0700521 -1.33616
-0.271863 -0.0277305 -1.3145
-0.272266 -0.0776822 -1.34193
-0.249258 -0.0326979 -1.31953
-0.253511 -0.0954552 -1.35596
-0.257884 -0.0681111 -1.339
-0.280051 -0.103077 -1.35676
-0.240359 -0.0469026 -1.32729
-0.27011 -0.0658099 -1.33496
-0.262587 -0.0413559 -1.32303
-0.261963 -0.0810013 -1.34663
-0.267691 -0.104892 -1.35945
-0.265889 -0.0535909 -1.32904
-0.276976 -0.0906256 -1.35005
-0.281595 -0.0632308 -1.33382
-0.250872 -0.0828704 -1.35317
-0.243528 -0.0589705 -1.33576
-0.27878 -0.0515648 -1.32829
-0.252289 -0.0445845 -1.32478
-0.254457 -0.0560096 -1.33109
-0.259779 -0.0299999 -1.31651
-0.264468 -0.0925967 -1.35337
-0.256104 -0.108026 -1.35852
-0.24766 -0.0711733 -1.3459
-0.27504 -0.0391796 -1.32177
-0.143085 -0.0599348 -0.903866
-0.235957 -0.0740873 -1.35005
-0.137488 -0.0354654 -0.887853
-0.141496 -0.0176369 -0.878633
-0.139403 -0.043699 -0.894681
-0.14106 -0.0515811 -0.899143
-0.236937 -0.0349765 -1.32222
-0.232038 -0.0613495 -1.34077
-0.241521 -0.0981562 -1.35632
-0.14361 -0.02591 -0.883855
-0.135422 -0.0269441 -0.881328
-0.145379 -0.033835 -0.890285
-0.239224 -0.0857675 -1.35687
-0.133694 -0.0196172 -0.875477
-0.136659 -0.0694379 -0.907863
-0.131027 -0.0445684 -0.889154
-0.116957 -0.0555647 -0.887493
-0.133041 -0.053274 -0.895659
-0.121422 -0.0382595 -0.87902
-0.127466 -0.0284765 -0.876733
-0.125681 -0.0207734 -0.870908
-0.110203 -0.0237272 -0.866864
-0.111865 -0.0316516 -0.871821
-0.135046 -0.0616409 -0.901892
-0.10579 -0.0413265 -0.876378
-0.115232 -0.0476836 -0.882075
-0.110775 -0.0654396 -0.891655
-0.126672 -0.0624439 -0.897284
-0.120447 -0.0722012 -0.899375
-0.11879 -0.064287 -0.893557
-0.129257 -0.0367108 -0.882872
-0.117933 -0.0226058 -0.867997
-0.119639 -0.0300464 -0.873444
-0.113544 -0.0398684 -0.877057
-0.123189 -0.0463537 -0.884623
-0.12494 -0.054475 -0.89079
-0.109104 -0.0573411 -0.886164
-0.10745 -0.0494743 -0.881114
-0.128703 -0.0716653 -0.903442
-0.0855268 -0.0208346 -0.865555
-0.0948332 -0.0270174 -0.867367
-0.0964007 -0.0349234 -0.872331
-0.100923 -0.0174607 -0.862088
-0.101244 -0.059072 -0.886193
-0.080801 -0.0383535 -0.879154
-0.0979976 -0.0430081 -0.876849
-0.0793004 -0.030414 -0.873677
-0.0996191 -0.0506354 -0.881296
-0.0854517 -0.0623938 -0.891125
-0.0917701 -0.0524554 -0.882993
-0.0869945 -0.0705792 -0.896884
-0.102898 -0.0673382 -0.891367
-0.0901806 -0.0447734 -0.878723
-0.102513 -0.0259675 -0.866802
-0.104142 -0.0331262 -0.871473
-0.0823529 -0.0465653 -0.881979
-0.0886225 -0.0366654 -0.874651
-0.0839076 -0.0541596 -0.886197
-0.0949807 -0.0689667 -0.893168
-0.0932649 -0.0191964 -0.862949
-0.0933839 -0.0605803 -0.887819
-0.0579353 -0.0525067 -0.902164
-0.0602866 -0.0179818 -0.879839
-0.0594338 -0.0602674 -0.905452
-0.0533306 -0.0279702 -0.89458
-0.0693308 -0.0665607 -0.900665
-0.0698309 -0.0242562 -0.875334
-0.0647803 -0.0421009 -0.889311
-0.054893 -0.0365965 -0.896105
-0.0564705 -0.0441608 -0.89828
-0.0758679 -0.0561993 -0.890726
-0.0617649 -0.0261872 -0.883067
-0.0743505 -0.0483227 -0.886664
-0.0610565 -0.0685676 -0.908534
-0.0633198 -0.0340266 -0.886013
-0.0662613 -0.0505568 -0.89306
-0.0777612 -0.022607 -0.869794
-0.0678135 -0.0581008 -0.89668
-0.0774502 -0.0645286 -0.895454
-0.0713333 -0.0325899 -0.878813
-0.0728434 -0.0403204 -0.882603
-0.0317881 -0.0336067 -0.963696
-0.0440084 -0.0305551 -0.919944
-0.0523582 -0.0712233 -0.91786
-0.0475813 -0.0466565 -0.903864
-0.0517966 -0.0204191 -0.889806
-0.049081 -0.0553751 -0.911237
-0.0507011 -0.0629615 -0.914808
-0.0302098 -0.0258412 -0.965204
-0.0222473 -0.0267158 -0.966418
-0.00648448 -0.0523291 -1.0881
-0.0195393 -0.0693677 -1.09624
0.00168261 -0.0638514 -1.09537
-0.00821433 -0.0617827 -1.09199
-0.00956069 -0.0716367 -1.09723
-0.0120225 -0.0199602 -0.963412
5.29853e-05 -0.073744 -1.10077
-0.0113626 -0.0813023 -1.09988
-0.0210903 -0.0796094 -1.09898
-0.0177612 -0.0598732 -1.09214
-0.00159248 -0.0834046 -1.1033
0.0140865 -0.0567769 -1.09482
0.00991347 -0.0870497 -1.10867
0.0277481 -0.0630412 -0.926601
0.0275042 -0.0717665 -0.928707
0.00302859 -0.0535409 -1.09117
0.0127938 -0.0671064 -1.10059
0.0110381 -0.0763872 -1.10565
0.0163646 -0.0461118 -1.09505
0.0543421 -0.0423195 -0.908001
0.0556119 -0.0672999 -0.900564
0.0448299 -0.0228381 -0.92578
0.0333099 -0.0722056 -0.923538
0.0351512 -0.0642468 -0.921894
0.0412975 -0.0397999 -0.923679
0.0434767 -0.0571778 -0.913306
0.0379059 -0.0475365 -0.922956
0.0362417 -0.0558542 -0.921371
0.0464677 -0.0407764 -0.916176
0.0490614 -0.0325131 -0.919168
0.0508259 -0.0496334 -0.906431
0.0456729 -0.0489177 -0.914367
0.0485421 -0.0662766 -0.906047
0.0412266 -0.0651357 -0.913302
0.0404769 -0.0735053 -0.914832
0.0323526 -0.0464845 -0.927748
0.0497571 -0.0576863 -0.905924
0.056207 -0.0343565 -0.911299
0.0534794 -0.0248908 -0.921554
0.0656176 -0.0526628 -0.896572
0.0755905 -0.0212639 -0.910261
0.0764961 -0.038204 -0.896135
0.0579125 -0.025469 -0.913944
0.0579213 -0.0599511 -0.900244
0.0807706 -0.0312575 -0.90014
